# .PCD v0.7 - Point Cloud Data file format
VERSION 0.7
FIELDS x y z
SIZE 4 4 4
TYPE F F F
COUNT 1 1 1
WIDTH 1618
HEIGHT 1
VIEWPOINT 0 0 0 1 0 0 0
POINTS 1618
DATA ascii
16.08 -8.5691996 -0.67080003
16.1616 -8.5475998 -0.67439997
16.2756 -8.5416002 -0.67919999
16.368 -8.5572004 -0.68279999
16.471199 -8.5451994 -0.68760002
16.5816 -8.5367994 -0.69240004
16.704 -8.5332003 -0.69719994
16.836 -8.5332003 -0.70320004
16.9692 -8.5344 -0.70920002
17.112 -8.5380001 -0.71640003
17.230801 -8.5632 -0.72240001
17.3484 -8.5535994 -0.72720003
17.4888 -8.5548 -0.73320001
17.6388 -8.5595999 -0.74039996
17.780401 -8.5595999 -0.7464
17.916 -8.5548 -0.75239998
18.052799 -8.5500002 -0.75840002
18.185999 -8.5775995 -0.76560003
18.343201 -8.5811996 -0.77279997
18.489599 -8.5788002 -0.77880001
18.688801 -8.6004 -0.78839999
19.034401 -8.6856003 -0.8064
19.347599 -8.7552004 -0.82200003
19.3116 -8.6664 -0.81839997
19.357201 -8.6507998 -0.82080001
19.878 -8.8067999 -0.84719998
20.07 -8.8164005 -0.85679996
20.255999 -8.8224001 -0.86520004
20.4468 -8.8283997 -0.87360001
20.6376 -8.8344002 -0.88319999
20.804399 -8.8283997 -0.89039999
20.982 -8.8643999 -0.89999998
21.162001 -8.8620005 -0.90840006
21.3384 -8.8571997 -0.9156
21.5196 -8.8523998 -0.92399997
21.7152 -8.8535995 -0.93360001
21.914398 -8.8535995 -0.94319999
22.1112 -8.8523998 -0.95159996
22.312799 -8.8920002 -0.96239996
22.5096 -8.8884001 -0.97080004
22.725599 -8.8907995 -0.98160005
22.9608 -8.9004002 -0.99240005
23.1588 -8.8931999 -1.002
23.386801 -8.8956003 -1.0116
23.6208 -8.8991995 -1.0236
23.832001 -8.9364004 -1.0344
24.266399 -9.0120001 -1.056
24.5784 -9.0396004 -1.0704
24.816 -9.0383997 -1.0824
25.057201 -9.0360003 -1.0932
25.310398 -9.0383997 -1.1052001
25.576799 -9.0419998 -1.1184
25.753201 -9.0587997 -1.1268001
26.16 -9.1092005 -1.1472
26.4408 -9.1139994 -1.1604
26.732401 -9.1199999 -1.1736
26.896799 -9.0816002 -1.1808001
27.061201 -9.0431995 -1.188
27.0996 -8.9603996 -1.1892
27.138 -8.9256001 -1.1904
27.250799 -8.868 -1.1952
27.493198 -8.8512001 -1.206
27.7992 -8.8535995 -1.2204
28.0056 -8.8224001 -1.23
28.117199 -8.7600002 -1.2348001
28.2108 -8.6927996 -1.2384
28.268398 -8.6616001 -1.2408
28.354799 -8.5908003 -1.2432001
28.554001 -8.5523996 -1.2528
31.0452 -9.1896 -1.3812001
31.0128 -9.0743999 -1.3788
31.090801 -8.9916 -1.3812001
31.217999 -8.9219999 -1.3859999
31.1796 -8.8584003 -1.3836
31.3848 -8.8092003 -1.392
34.947598 -9.6876001 -1.5768
34.750801 -9.5159998 -1.5648
34.586399 -9.3540001 -1.5552
34.642799 -9.2531996 -1.5564001
34.745998 -9.1632004 -1.5599999
34.717201 -9.0971994 -1.5576
34.771198 -8.9952002 -1.5588
34.925999 -8.9183998 -1.566
35.049599 -8.8319998 -1.5708001
35.099998 -8.7276001 -1.5719999
35.290802 -8.658 -1.5804
35.341202 -8.5523996 -1.5816
35.3004 -8.4840002 -1.5792
35.467201 -8.4060001 -1.5864
35.6292 -8.3256006 -1.5924001
35.695202 -8.2236004 -1.5948
35.759998 -8.1204004 -1.5971999
35.832001 -8.0184002 -1.5996
35.891998 -7.9716001 -1.602
35.982002 -7.8731999 -1.6056001
36.1092 -7.7820001 -1.6104
36.1968 -7.6823997 -1.6140001
36.298801 -7.5852003 -1.6176001
36.411602 -7.4892001 -1.6224
36.538799 -7.3956003 -1.6271999
36.630001 -7.3535995 -1.632
36.7416 -7.2564001 -1.6367999
36.849602 -7.158 -1.6403999
37.000801 -7.0668001 -1.6476001
37.146 -6.9731998 -1.6536
37.282799 -6.8772001 -1.6596
37.4436 -6.7847996 -1.6668
37.517998 -6.7379999 -1.6692001
37.625999 -6.6348 -1.674
37.714802 -6.5292001 -1.6776
37.7952 -6.4200001 -1.6812
37.838398 -6.3060002 -1.6824
24.9072 -3.96 -1.0224
24.618 -3.8364 -1.0067999
24.627602 -3.7584 -1.0067999
24.5592 -3.6683998 -1.0032001
24.246 -3.5448 -0.98640001
24.7596 -3.54 -1.0116
24.7512 -3.4596 -1.0104001
24.795601 -3.4260001 -1.0128
24.744001 -3.3396001 -1.0092
24.7164 -3.2567999 -1.008
24.728401 -3.1787999 -1.008
24.732 -3.1008 -1.0067999
24.7344 -3.0215998 -1.0067999
24.7404 -2.9436002 -1.0067999
24.737999 -2.904 -1.0067999
24.7332 -2.8248 -1.0056
24.772799 -2.7504001 -1.0067999
24.781199 -2.6724 -1.0067999
24.8088 -2.5968001 -1.008
24.847198 -2.5223999 -1.0104001
24.5172 -2.4504001 -0.99360001
24.5868 -2.3796 -0.99599999
24.615601 -2.3039999 -0.99719995
24.7236 -2.2356 -1.002
25.126799 -2.1912 -1.0224
25.052401 -2.1059999 -1.0188
25.6152 -2.0711999 -1.0464
26.8248 -2.0832 -1.1064
28.335602 -2.154 -1.1832
40.2612 -2.9208 -1.7820001
40.3032 -2.796 -1.7844
40.323601 -2.6699998 -1.7844
40.420799 -2.5488 -1.7892001
40.569599 -2.4300001 -1.7964
40.4916 -2.3616002 -1.7927999
40.6716 -2.244 -1.8012
40.6548 -2.1156001 -1.8
40.790401 -1.9932001 -1.806
41.0952 -1.8792 -1.8216
41.7024 -1.7747999 -1.8515999
41.927998 -1.6524 -1.8624001
41.992798 -1.5888 -1.8659999
41.964001 -1.4556 -1.8636
42.028797 -1.326 -1.8672
42.077999 -1.1952 -1.8695999
42.1464 -1.0644001 -1.872
42.235199 -0.93360001 -1.8768001
42.311996 -0.80280006 -1.8804001
42.340801 -0.66960001 -1.8815999
42.411598 -0.60479999 -1.8852
42.463203 -0.4716 -1.8875999
42.473999 -0.33840001 -1.8888
42.537601 -0.2052 -1.8911999
42.5928 -0.071999997 -1.8947999
38.141998 0.0612 -1.9128
38.1744 0.1812 -1.9152
38.215202 0.2412 -1.9176
38.309998 0.3624 -1.9224
38.375999 0.48359999 -1.926
38.4048 0.60479999 -1.9284
38.492401 0.72720003 -1.9331999
38.519997 0.8484 -1.9344
38.680801 0.97319996 -1.944
38.7864 1.0368 -1.95
38.840401 1.1604 -1.9536
38.911198 1.2852 -1.9572001
39.019199 1.4112 -1.9643999
39.156002 1.5383999 -1.9716001
39.151199 1.6619999 -1.9716001
39.303596 1.7916 -1.9812
39.405602 1.9211999 -1.9872
39.526798 1.9884 -1.9943999
39.7356 2.1240001 -2.0064001
39.884399 2.2572 -2.0148001
39.961197 2.388 -2.0195999
40.127998 2.5248001 -2.0292001
40.2444 2.658 -2.0364001
40.352398 2.7287998 -2.0435998
40.455601 2.8644001 -2.0495999
40.544399 2.9975998 -2.0556002
40.666801 3.1355999 -2.0627999
40.845596 3.2784002 -2.0736001
41.008801 3.4212 -2.0832
41.2104 3.5676 -2.0952001
41.433601 3.6527998 -2.1083999
41.641201 3.8027999 -2.1204
41.894398 3.9588001 -2.1359999
42.122402 4.1135998 -2.1492
42.457199 4.2803998 -2.1696
42.717598 4.4424 -2.1852
42.847202 4.5911999 -2.1924
42.9972 4.6764002 -2.2020001
43.162804 4.8312001 -2.2116001
43.369198 4.9919996 -2.2247999
43.579201 5.1552 -2.2379999
43.757999 5.3147998 -2.2488
43.902 5.4731998 -2.2584
17.648399 2.4156001 -0.76319999
17.6028 2.4660001 -0.76199996
16.708799 2.4491999 -0.71160001
16.5924 2.4864001 -0.70560002
16.149601 2.4468 -0.68039995
15.8892 2.4588001 -0.66600001
15.2892 2.4168 -0.63120002
12.886801 2.0832 -0.49439999
12.8328 2.1156001 -0.49199998
12.816 2.154 -0.49080002
12.81 2.1947999 -0.49080002
12.834 2.22 -0.4932
14.3844 2.5776 -0.58319998
14.082 2.5692 -0.56639999
12.776401 2.4168 -0.49199998
12.723599 2.5524001 -0.49080002
12.7032 2.5896001 -0.4896
12.686399 2.628 -0.4896
12.705601 2.6736 -0.49080002
12.7284 2.7203999 -0.49199998
12.846 2.766 -0.49920002
12.8508 2.8092 -0.50040001
12.8604 2.8536 -0.50160003
12.8748 2.8992 -0.50279999
12.8592 2.9375999 -0.50279999
12.8664 2.9819999 -0.50279999
12.8664 3.0251999 -0.50400001
12.867599 3.0468001 -0.50400001
12.886801 3.0936 -0.50639999
12.8352 3.1236 -0.50400001
12.8688 3.1752 -0.50639999
12.844801 3.2124 -0.50520003
12.8628 3.2592001 -0.50639999
12.8412 3.2964001 -0.50639999
12.8544 3.3216 -0.50760001
12.8412 3.3612001 -0.50760001
12.8544 3.408 -0.50879997
12.8508 3.45 -0.50879997
12.8556 3.4956002 -0.50999999
12.858 3.5387998 -0.51120001
12.8424 3.5784001 -0.50999999
12.878401 3.6095998 -0.51239997
12.8904 3.6564 -0.51359999
12.8856 3.6996 -0.51480001
12.894 3.7452002 -0.51600003
13.0668 3.8400002 -0.52680004
13.3056 3.9552 -0.54119998
14.146799 4.2515998 -0.5916
14.2164 4.296 -0.59640002
14.2044 4.3415999 -0.59640002
14.2092 4.3920002 -0.59759998
14.2248 4.4460001 -0.5988
14.184 4.4819999 -0.59759998
14.104799 4.5300002 -0.59399998
14.054399 4.5623999 -0.5916
14.044801 4.6079998 -0.59279996
12.8376 4.3499999 -0.52319998
12.84 4.3956003 -0.5244
12.9012 4.4615998 -0.528
12.8796 4.4772 -0.528
21.75 7.6907997 -1.0608
28.065601 10.0128 -1.4412
28.158001 10.146 -1.4484
28.212 10.2648 -1.4544001
28.298401 10.398 -1.4616001
28.396799 10.484401 -1.4676001
28.414801 10.5924 -1.4712
27.4356 10.4256 -1.4159999
27.390001 10.506001 -1.4148
25.5264 9.8856001 -1.3044
25.3008 9.8903999 -1.2924
25.122 9.8663998 -1.2828
24.912001 9.8747997 -1.272
24.703201 9.882 -1.2612
24.5676 9.9167995 -1.2539999
24.594002 10.017599 -1.2575999
24.6096 10.113601 -1.2612
24.4704 10.147201 -1.2539999
24.336 10.136399 -1.2468001
24.306 10.2132 -1.2468001
24.2784 10.292399 -1.2479999
24.219601 10.3572 -1.2456
24.177601 10.4292 -1.2456
24.1404 10.5036 -1.2456
24.233999 10.5888 -1.2516
24.3204 10.7184 -1.2588
24.127201 10.7232 -1.2492
23.9184 10.7208 -1.2384
23.755199 10.7376 -1.23
23.7288 10.815599 -1.2312
23.7288 10.905601 -1.2336
23.740801 10.956 -1.2348001
21.354 9.9396 -1.0884
21.1884 9.9443998 -1.0799999
21.024 9.948 -1.0716
20.882401 9.9611998 -1.0644001
20.734798 9.9708004 -1.0572
20.586 9.9804001 -1.05
20.458799 9.9576006 -1.0428001
20.305199 9.9624004 -1.0355999
20.220001 9.9996004 -1.0320001
20.2164 10.076401 -1.0332
20.1924 10.1448 -1.0344
20.148001 10.2012 -1.0332
20.34 10.3788 -1.0476
19.9464 10.218 -1.0236
19.815601 10.23 -1.0175999
19.669201 10.232401 -1.0104001
19.521599 10.2348 -1.0032001
19.355999 10.2252 -0.99479997
19.201199 10.2216 -0.98640001
19.069201 10.2288 -0.98039997
20.197199 10.872001 -1.0536001
20.208 10.9596 -1.056
20.1984 11.0364 -1.0584
20.205599 11.1228 -1.0608
20.195999 11.2008 -1.062
20.187599 11.2788 -1.0644001
20.1924 11.3652 -1.0668
20.188799 11.404799 -1.068
17.947201 10.2168 -0.92399997
17.7924 10.2036 -0.91680002
20.2152 11.6724 -1.0764
20.1924 11.7444 -1.0776
17.5284 10.2732 -0.9048
17.393999 10.2684 -0.89880002
16.896 10.0104 -0.8664
16.783199 10.0152 -0.86159998
16.6824 10.025999 -0.85679996
16.5744 10.0332 -0.852
16.4736 10.042801 -0.84719998
16.356001 10.0416 -0.84119999
16.2756 10.0632 -0.83880001
16.1472 10.0188 -0.83160001
16.0728 10.044 -0.82800001
15.948 10.0356 -0.82200003
15.8664 10.0536 -0.81839997
15.75 10.0488 -0.81239998
15.7908 10.1448 -0.81720001
15.7824 10.2108 -0.81960005
15.7128 10.2 -0.81599998
15.570001 10.1772 -0.80880004
15.4116 10.1436 -0.7992
15.7752 10.4532 -0.82679999
15.9816 10.662001 -0.84240001
16.017599 10.759199 -0.84719998
16.5144 11.166 -0.88319999
16.537201 11.2188 -0.88680005
16.5408 11.298 -0.88919997
16.5516 11.3808 -0.89280003
16.5348 11.446799 -0.89399999
16.5564 11.538 -0.89760005
16.527599 11.5956 -0.89760005
15.423599 10.896 -0.82439995
15.4044 10.9188 -0.82439995
15.334801 10.9416 -0.82200003
15.294 10.986 -0.82080001
15.2364 11.0172 -0.81960005
15.182401 11.050799 -0.81839997
15.1344 11.0892 -0.81720001
15.084 11.1252 -0.81599998
16.5588 12.2496 -0.92159998
16.5648 12.3336 -0.92399997
16.568399 12.4176 -0.92760003
16.5576 12.490801 -0.92879999
16.559999 12.5748 -0.93239999
16.562401 12.6588 -0.93479997
16.561199 12.740399 -0.93840003
16.576799 12.7932 -0.94079995
16.584 12.882 -0.94440001
16.572001 12.9564 -0.94559997
16.5756 13.044 -0.94920003
16.5972 13.1448 -0.954
12.5916 10.1124 -0.66960001
12.5484 10.1088 -0.66719997
12.4644 10.1064 -0.66359997
12.386399 10.1076 -0.66000003
12.3228 10.1208 -0.65759999
12.2412 10.118401 -0.65400004
12.170401 10.1244 -0.6516
12.0936 10.1256 -0.648
12.0396 10.1124 -0.64559996
11.9676 10.116 -0.64200002
11.9004 10.1244 -0.63959998
11.8308 10.1292 -0.6372
11.7528 10.127999 -0.6336
11.692801 10.138801 -0.63120002
11.635201 10.122001 -0.62879997
11.565599 10.1244 -0.62520003
11.475599 10.111199 -0.62160003
11.4348 10.138801 -0.62040001
11.474401 10.2384 -0.62639999
11.4792 10.308001 -0.62879997
11.474401 10.368 -0.63120002
11.4792 10.4376 -0.6336
11.494801 10.484401 -0.63599998
11.4936 10.5492 -0.63840002
11.509199 10.6308 -0.64200002
11.500799 10.6896 -0.6444
11.76 10.999201 -0.66719997
11.76 11.0688 -0.66960001
11.7636 11.142 -0.67320001
11.772 11.1852 -0.67439997
11.28 10.7868 -0.63959998
11.251201 10.8276 -0.63959998
11.226 10.8708 -0.63959998
11.1936 10.908 -0.6408
11.1612 10.9452 -0.6408
11.146799 11.0004 -0.64200002
12.0792 11.9532 -0.71759999
12.012 11.9616 -0.71520001
11.934 11.9592 -0.71160001
11.862 11.9628 -0.70920002
11.791201 11.965199 -0.70679998
11.9316 12.183599 -0.72119999
12.0036 12.334801 -0.72959995
11.9424 12.3108 -0.72600001
11.892 12.335999 -0.72479999
11.8932 12.414001 -0.72839999
11.905199 12.505199 -0.73320001
11.8992 12.5772 -0.73559999
11.888399 12.646799 -0.73800004
11.892 12.7296 -0.74159998
11.8932 12.7704 -0.7428
11.9028 12.861601 -0.74760002
11.882401 12.920401 -0.74880004
11.9004 13.0212 -0.7536
11.8896 13.092 -0.75599998
11.874001 13.158 -0.75840002
12.0768 13.4664 -0.77880001
12.054 13.4832 -0.77880001
11.976 13.481999 -0.77640003
11.904 13.4856 -0.77399999
11.8332 13.490399 -0.77160001
11.8272 13.5684 -0.77399999
8.802 10.1748 -0.51719999
8.7528 10.1832 -0.51600003
11.8476 13.809601 -0.78479999
11.8476 13.898399 -0.78960001
11.8488 13.9884 -0.79320002
11.85 14.078401 -0.79679996
11.8416 14.1576 -0.80040002
11.8356 14.2416 -0.80400002
16.493999 19.955999 -1.2204
8.3387995 10.146 -0.49920002
8.3016005 10.164001 -0.498
8.2656002 10.1868 -0.498
8.2103996 10.1832 -0.49559999
8.1599998 10.1856 -0.49439999
8.1084003 10.1868 -0.4932
8.0580006 10.190399 -0.49080002
8.0291996 10.1856 -0.4896
7.9763999 10.184401 -0.48840001
7.9308004 10.192801 -0.48719999
7.8840003 10.198799 -0.486
7.8360004 10.2024 -0.48359999
7.7832003 10.2 -0.4824
7.7291999 10.1964 -0.48000002
7.6991997 10.1892 -0.4788
7.6511998 10.192801 -0.47760001
7.6020002 10.194 -0.4752
7.5600004 10.2036 -0.47400001
7.5095997 10.2024 -0.47279999
7.4639997 10.2084 -0.4716
7.4172001 10.2108 -0.47039998
7.3824 10.1976 -0.46799999
7.3344002 10.198799 -0.4668
7.29 10.2048 -0.46560001
7.2444 10.207199 -0.46439999
7.1999998 10.2132 -0.4632
7.1831999 10.257601 -0.46439999
7.1855998 10.3308 -0.46799999
7.1939998 10.3776 -0.47039998
7.2012 10.4568 -0.47400001
7.1915998 10.5132 -0.47640002
7.1904001 10.5828 -0.48000002
7.1892004 10.6512 -0.48359999
7.1868 10.722 -0.486
7.1855998 10.7916 -0.4896
7.1808004 10.8576 -0.49199998
7.2035999 10.9296 -0.49680001
7.1976004 10.9956 -0.49920002
7.1939998 11.0652 -0.50279999
7.1928 11.1396 -0.50639999
7.1892004 11.2104 -0.50999999
7.1868 11.284801 -0.51359999
7.1939998 11.3748 -0.51719999
7.2120004 11.441999 -0.52079999
7.1795998 11.4708 -0.52200001
9.474 15.2232 -0.77040005
9.4152002 15.2364 -0.76919997
9.3492002 15.2352 -0.76679999
9.2771997 15.225599 -0.76440001
9.2136002 15.228 -0.76319999
9.1764002 15.222 -0.76199996
9.1092005 15.2184 -0.75960004
9.0503998 15.228 -0.75840002
8.9855995 15.228 -0.75599998
8.9292002 15.2412 -0.75480002
8.8571997 15.228 -0.75239998
8.7972002 15.2352 -0.75119996
8.7528 15.2136 -0.74880004
8.6999998 15.2328 -0.74880004
8.6328001 15.2268 -0.7464
8.5763998 15.2364 -0.74519998
8.5176001 15.244801 -0.74400002
8.448 15.233999 -0.74159998
8.3940001 15.2472 -0.74039996
8.3520002 15.2292 -0.7392
8.2908001 15.2304 -0.73680001
8.2284002 15.2292 -0.73559999
8.1624002 15.2232 -0.73320001
8.1059999 15.2316 -0.73199999
8.0436001 15.2292 -0.73080003
7.9884 15.242399 -0.72959995
7.5791998 14.631599 -0.68879998
7.4664001 14.5248 -0.68039995
7.4496002 14.604 -0.68400002
7.4231997 14.665199 -0.68640006
7.3643999 14.6628 -0.68400002
7.3104 14.6712 -0.68279999
7.2600002 14.626801 -0.68039995
7.2384 14.698799 -0.68279999
7.2360001 14.811601 -0.68879998
7.2312002 14.9208 -0.6936
7.2288003 15.035999 -0.69959998
7.2288003 15.156 -0.70560002
7.224 15.27 -0.71160001
7.2491999 15.385201 -0.71759999
7.2528 15.5184 -0.72479999
7.2456002 15.629999 -0.73080003
7.2431998 15.752399 -0.73680001
7.2564001 15.913199 -0.74519998
7.23 15.9876 -0.74880004
9.0215998 20.097599 -1.002
8.9916 20.1168 -1.002
8.9052 20.0916 -0.99959999
8.8392 20.113199 -0.99840003
8.7648001 20.114399 -0.99719995
8.6892004 20.115601 -0.99599999
8.6124001 20.1096 -0.99360001
8.5416002 20.119202 -0.99240005
8.4935999 20.0952 -0.99000001
8.4204006 20.097599 -0.98879999
8.3555994 20.119202 -0.98879999
8.2775993 20.1096 -0.98640001
8.1983995 20.096399 -0.98399997
8.1264 20.1 -0.98280001
8.052 20.098801 -0.98039997
7.8996 19.898401 -0.96719998
7.5815997 19.189199 -0.9228
7.5072002 19.1772 -0.92040002
7.4399996 19.183201 -0.92040002
7.3811998 19.2108 -0.92040002
7.3008003 19.180799 -0.91680002
7.2540002 19.2384 -0.91919994
7.2672005 19.4592 -0.93120003
7.2887998 19.6092 -0.93959999
7.2840004 19.785601 -0.94800001
7.2863998 19.986 -0.95880002
7.2756004 20.152802 -0.9684
7.2803998 20.3652 -0.97920001
8.6604004 24.447599 -1.2228
8.5727997 24.4452 -1.2216001
7.9032001 22.655998 -1.1136
7.8407998 22.7052 -1.1148
7.8360004 23.16 -1.1388
7.8095999 23.3232 -1.1472
9.0060005 27.1632 -1.374
8.9712 27.3456 -1.3836
8.9652004 27.474001 -1.3908
9.0971994 28.478401 -1.4471999
8.9519997 28.3332 -1.4364001
8.8860006 28.4352 -1.4412
7.5251999 24.6348 -1.2132001
7.4531999 24.538799 -1.206
8.5475998 28.445999 -1.4364001
8.3400002 28.0776 -1.4124
8.2404003 28.062 -1.41
8.1528006 28.090801 -1.41
8.0543995 28.083599 -1.4088
7.9632001 28.0956 -1.4075999
7.9139996 28.090801 -1.4064001
7.8275995 28.125599 -1.4075999
7.8336 28.4916 -1.4268
7.7388 28.495201 -1.4255999
3.6863999 13.98 -0.57359999
3.6348 13.9644 -0.57239997
3.5784001 13.8372 -0.56519997
3.5651999 13.9644 -0.57120001
3.5196002 13.9716 -0.57120001
3.4751999 13.98 -0.57120001
3.4212 13.948799 -0.56880003
3.3900001 14.0124 -0.57120001
3.3887999 14.2008 -0.58200002
3.408 14.378401 -0.5916
3.4043999 14.565599 -0.60239995
3.402 14.7612 -0.61319995
3.3984001 14.9592 -0.62399995
3.3947999 15.163199 -0.63479996
3.3887999 15.3588 -0.64559996
3.3864 15.582 -0.65759999
3.3839998 15.8064 -0.67080003
3.4056001 16.0296 -0.68279999
3.4043999 16.2696 -0.69599998
3.4008002 16.5096 -0.70920002
3.3959999 16.753201 -0.72359997
3.4056001 17.0688 -0.74039996
3.3744001 17.194801 -0.74760002
3.3180001 17.1936 -0.7464
3.2819998 17.1516 -0.74400002
3.2556 17.3076 -0.75239998
3.2616 17.642399 -0.77040005
3.3972001 18.690001 -0.83039999
3.4319999 19.2216 -0.86040002
3.438 19.605598 -0.88200003
3.4391999 19.982401 -0.90239996
3.4728 20.3652 -0.92520005
3.474 20.7612 -0.94679999
3.4823999 21.2136 -0.972
3.4860001 21.66 -0.99719995
3.4884 22.116001 -1.0224
3.4524002 22.3368 -1.0344
3.3671999 22.248001 -1.0283999
3.3276 22.225201 -1.0272
3.2472 22.165201 -1.0236
3.1764002 22.165201 -1.0224
3.1056001 22.167599 -1.0224
3.0336001 22.1628 -1.0212001
2.9699998 22.2132 -1.0236
2.9052 22.257601 -1.026
2.8812001 22.35 -1.0308
2.8271999 22.4904 -1.038
2.934 23.928001 -1.1196001
2.9088001 24.354 -1.1436
3.0827999 26.490002 -1.2648001
3.0479999 26.9256 -1.2888
3.372 30.602402 -1.4976001
3.072 28.3092 -1.3668001
3.006 28.536001 -1.3788
2.8631999 28.034399 -1.35
2.7887998 28.174801 -1.3572
2.7287998 28.489199 -1.3752
2.6508002 28.6164 -1.3812001
2.5932 28.972799 -1.4016
2.5716 29.2488 -1.4172
2.4300001 28.6824 -1.3836
2.3556001 28.875599 -1.3943999
2.25 28.706402 -1.3848001
2.1744001 28.899601 -1.3956
2.0783999 28.8276 -1.3908
1.9908 28.874401 -1.3932
2.0424001 30.2952 -1.4736
1.9247999 29.968801 -1.4544001
1.7867999 29.274 -1.4148
1.3632001 23.643599 -1.0956
1.2804 23.492399 -1.0872
1.2 23.386801 -1.0799999
1.1268001 23.375999 -1.0799999
1.0536001 23.389198 -1.0799999
1.0188 23.4408 -1.0836
0.94559997 23.4408 -1.0824
0.87 23.4084 -1.0812
0.79679996 23.4132 -1.0812
0.546 17.934 -0.77040005
0.48000002 17.5956 -0.75119996
0.44159999 17.2176 -0.73080003
0.3876 17.2068 -0.72959995
0.20640001 11.177999 -0.3888
0.22679999 14.257199 -0.56279999
0.18239999 14.3016 -0.56519997
0.138 14.316 -0.56639999
0.092399999 14.3064 -0.56519997
0.069600001 14.2704 -0.56400001
-0.022799999 11.252399 -0.3924
-0.057599999 11.304 -0.39600003
-0.102 12.875999 -0.48480001
-0.1356 12.1044 -0.4404
-0.17399999 12.1104 -0.44159999
-0.2124 12.1152 -0.44159999
-0.2316 12.1128 -0.44159999
-0.26880002 12.0876 -0.4404
-0.3576 14.319599 -0.56639999
-0.44159999 14.1108 -0.55440003
-0.486 14.1312 -0.55559999
-0.5316 14.1432 -0.55680001
-0.55199999 14.1024 -0.55440003
-0.60000002 14.1936 -0.55919999
-0.64559996 14.205601 -0.56040001
-0.73199999 14.1588 -0.55800003
-0.77640003 14.154 -0.55800003
-0.82439995 14.2044 -0.56159997
-0.8448 14.184 -0.56040001
-0.89520001 14.259601 -0.56400001
-0.93720001 14.226 -0.56279999
-0.98399997 14.243999 -0.56400001
-1.0283999 14.2416 -0.56400001
-1.0764 14.285999 -0.56639999
-1.1196001 14.2632 -0.56519997
-1.182 14.7696 -0.59399998
-1.23 14.234401 -0.56400001
-1.2995999 14.5056 -0.57960004
-1.374 14.327999 -0.56999999
-1.4232 14.3688 -0.57239997
-1.4484 14.388 -0.57359999
-1.4987999 14.428801 -0.5772
-1.5792 14.7696 -0.59640002
-1.6308 14.811601 -0.5988
-2.2739999 20.169601 -0.90360004
-2.3952 20.67 -0.93360001
-2.2007999 18.2076 -0.79320002
-2.2523999 18.1572 -0.79079998
-2.3111999 18.1572 -0.79200006
-2.3808 18.2544 -0.79800004
-2.4371998 18.24 -0.79679996
-2.4972 18.2484 -0.79800004
-2.5595999 18.2784 -0.80040002
-2.592 18.2964 -0.80159998
-2.6543999 18.326401 -0.80400002
-2.7203999 18.372 -0.8064
-1.9128 12.578401 -0.47640002
-2.8476 18.433201 -0.81120002
-2.9136 18.48 -0.81480002
-2.016 12.468 -0.47039998
-2.0508001 12.4308 -0.46920002
-2.0724001 12.4392 -0.46920002
-2.1143999 12.4536 -0.47039998
-2.1515999 12.4332 -0.47039998
-2.2128 12.5556 -0.47760001
-4.1112003 23.0508 -1.0799999
-2.2236001 11.947201 -0.44400001
-2.244 11.955601 -0.44400001
-2.2788 11.9328 -0.44400001
-2.3171999 11.927999 -0.44400001
-2.3543999 11.9196 -0.44400001
-2.3916001 11.91 -0.44400001
-2.4287999 11.9028 -0.44400001
-2.4672 11.9016 -0.44400001
-2.4864001 11.898 -0.44400001
-2.5223999 11.8836 -0.44400001
-2.5608001 11.8848 -0.44400001
-2.5968001 11.8692 -0.44400001
-2.6339998 11.8608 -0.44400001
-4.6524 20.7456 -0.95880002
-4.7184 20.7372 -0.95880002
-4.7532001 20.739601 -0.96000004
-4.8168001 20.717999 -0.95880002
-2.9819999 12.5904 -0.48840001
-3.0491998 12.6996 -0.49559999
-3.0624001 12.5808 -0.48840001
-2.9916 12.120001 -0.46199998
-2.9856 11.2452 -0.414
-3.0288 11.2668 -0.41640002
-3.3048 12.15 -0.46799999
-3.3491998 12.1608 -0.46920002
-3.3660002 12.1476 -0.46920002
-3.4103999 12.1584 -0.47039998
-3.4488001 12.1524 -0.47039998
-3.4884 12.145201 -0.4716
-3.5411999 12.183599 -0.47400001
-3.5676 12.1308 -0.4716
-3.6192 12.168 -0.47400001
-6.0251999 20.211601 -0.94920003
-6.0623999 20.104799 -0.94440001
-3.7163999 12.1428 -0.47400001
-6.2508001 20.270401 -0.95639998
-6.2964001 20.188799 -0.95280004
-6.3060002 19.998001 -0.94200003
-6.3948002 20.062799 -0.94679999
-6.4632001 20.166 -0.954
-4.8551998 14.9628 -0.64559996
-6.5340004 19.957201 -0.94440001
-6.6408 20.068802 -0.95159996
-6.6996002 20.034 -0.95039999
-6.7607999 20.007601 -0.95039999
-6.816 19.966801 -0.94920003
-6.7775998 19.751999 -0.93720001
-6.7944002 19.596001 -0.92879999
-6.8568001 19.579201 -0.92999995
-6.9384003 19.613998 -0.93239999
-7.0655999 19.777201 -0.94440001
-4.4208002 12.216001 -0.49080002
-4.4591999 12.204 -0.49080002
-4.4819999 12.2064 -0.49199998
-7.1424003 19.316401 -0.92040002
-7.1976004 19.280399 -0.92040002
-6.3168001 16.7472 -0.76800001
-6.3467999 16.6668 -0.76440001
-6.3528004 16.5264 -0.7572
-6.4211998 16.5504 -0.7608
-6.4331999 16.504799 -0.75840002
-6.4644003 16.430401 -0.75480002
-6.5771999 16.566 -0.76440001
-6.6288004 16.5432 -0.76440001
-6.6672001 16.489201 -0.76199996
-9.0228004 22.143599 -1.1088001
-9.0335999 21.9708 -1.0992
-9.0084 21.812401 -1.0907999
-9.0167999 21.639601 -1.0824
-5.1708002 12.1584 -0.50400001
-9.0288 21.101999 -1.0548
-5.2691998 12.1764 -0.50639999
-5.3184004 12.186 -0.50879997
-5.3627996 12.182401 -0.50879997
-6.9768 15.804 -0.73320001
-5.4396 12.200399 -0.51239997
-5.4791999 12.187201 -0.51239997
-5.5308003 12.199201 -0.51359999
-9.1043997 19.9632 -0.99719995
-5.6148 12.1812 -0.51480001
-5.6639996 12.1848 -0.51600003
-5.6952 12.2028 -0.51840001
-5.7396002 12.198 -0.51840001
-5.7827997 12.190801 -0.51959997
-5.8332 12.198 -0.52079999
-5.8667998 12.171599 -0.52079999
-5.8835998 12.1068 -0.51719999
-5.9424 12.132 -0.52079999
-5.9615998 12.1224 -0.52079999
-5.9628 12.0288 -0.51600003
-5.9699998 11.947201 -0.51120001
-5.9724002 11.8596 -0.50760001
-5.9724002 11.766001 -0.50279999
-5.9796 11.690399 -0.49920002
-5.9136 11.4708 -0.486
-5.8968 11.3928 -0.4824
-5.9159999 11.3424 -0.48000002
-6.0528002 11.517599 -0.49199998
-5.9016004 11.142 -0.46920002
-6.1080003 11.446799 -0.4896
-6.1500001 11.440801 -0.49080002
-5.9124002 10.9128 -0.45840001
-5.8931999 10.835999 -0.45359999
-6.3768001 11.557199 -0.50279999
-5.9003997 10.608 -0.44279999
-6.1860003 11.0436 -0.47279999
-6.2268 11.0352 -0.47279999
-6.2435999 10.9836 -0.47039998
-6.2664003 10.982401 -0.4716
-6.3011999 10.9644 -0.4716
-6.3444004 10.9596 -0.47279999
-6.3840003 10.9476 -0.47279999
-6.4260001 10.9416 -0.47400001
-6.4656 10.9296 -0.47400001
-6.5112 10.9284 -0.4752
-6.5639997 10.938 -0.47760001
-6.6048002 10.9692 -0.48000002
-6.6612 10.9836 -0.4824
-6.7259998 11.0136 -0.486
-8.7048006 14.1708 -0.69719994
-8.7672005 14.172001 -0.69840002
-8.8271999 14.1684 -0.7008
-8.8716002 14.1912 -0.70320004
-8.9327993 14.19 -0.7044
-8.9820004 14.1684 -0.70560002
-9.0324001 14.1504 -0.70560002
-9.0408001 14.0652 -0.70199996
-9.0455999 13.9764 -0.69840002
-9.0528002 13.8912 -0.6936
-9.0324001 13.8108 -0.69
-9.0480003 13.74 -0.68640006
-9.0492001 13.65 -0.68279999
-9.0528002 13.561199 -0.67799997
-9.0528002 13.4688 -0.67439997
-9.0539999 13.3788 -0.66960001
-9.0707998 13.3152 -0.66719997
-9.0503998 13.2396 -0.66359997
-9.0564003 13.1592 -0.66000003
-9.0684004 13.0872 -0.65639997
-9.0684004 12.9996 -0.65280002
-9.0791998 12.9276 -0.64920002
-7.9884 11.2932 -0.5388
-8.0412006 11.2932 -0.53999996
-8.0892 11.284801 -0.54119998
-8.1360006 11.313601 -0.54479998
-8.1743994 11.292 -0.54479998
-8.2320004 11.2956 -0.54720002
-8.2835999 11.292 -0.54839998
-8.3387995 11.2932 -0.55079997
-8.3879995 11.284801 -0.55199999
-8.4503994 11.294399 -0.55440003
-8.4840002 11.302799 -0.55559999
-8.5404005 11.304 -0.55800003
-8.6004 11.31 -0.56040001
-8.802 11.500799 -0.57480001
-8.8704004 11.514 -0.57840002
-8.9231997 11.509199 -0.57960004
-8.9591999 11.4816 -0.57960004
-9 11.494801 -0.58200002
-9.1512003 11.613601 -0.59279996
-9.1224003 11.502 -0.58679998
-9.1535997 11.4684 -0.58679998
-9.198 11.449201 -0.58679998
-9.2508001 11.441999 -0.588
-9.3095999 11.440801 -0.59040004
-9.3576002 11.4636 -0.59279996
-9.408 11.450399 -0.59399998
-9.4667997 11.449201 -0.59640002
-9.5375996 11.4612 -0.60000002
-9.5903997 11.4516 -0.60119998
-9.6504002 11.450399 -0.60360003
-9.7164001 11.455199 -0.60600001
-9.75 11.458799 -0.60719997
-9.8100004 11.4564 -0.60960001
-9.8795996 11.4636 -0.61199999
-9.9288006 11.449201 -0.61319995
-9.8051996 11.2332 -0.60000002
-9.7992001 11.1564 -0.59640002
-9.8171997 11.104799 -0.5952
-9.8232002 11.0772 -0.59399998
-9.8448009 11.0316 -0.59279996
-9.8879995 11.01 -0.59279996
-9.9251995 10.982401 -0.59399998
-9.9419994 10.931999 -0.5916
-9.9839993 10.9092 -0.59279996
-10.0284 10.888801 -0.59399998
-10.057199 10.885201 -0.59399998
-10.111199 10.8744 -0.59640002
-10.164001 10.863601 -0.59759998
-10.3308 10.9728 -0.60840005
-10.662001 11.2548 -0.6336
-10.6608 11.1828 -0.63
-10.6608 11.113199 -0.62760001
-10.6488 11.0652 -0.62520003
-10.646399 10.9932 -0.62160003
-10.6512 10.9284 -0.61919999
-10.5996 10.8084 -0.61199999
-10.569599 10.71 -0.60719997
-10.7064 10.7124 -0.61319995
-10.7556 10.728 -0.61559999
-10.848 10.753201 -0.62040001
-10.8996 10.7364 -0.62160003
-11.184 10.948799 -0.64200002
-12.048 11.724001 -0.70679998
-12.1224 11.7228 -0.71039999
-12.187201 11.7108 -0.71160001
-12.264 11.748 -0.71640003
-12.348 11.755199 -0.72000003
-12.4284 11.757601 -0.72359997
-12.505199 11.755199 -0.72720003
-12.5856 11.757601 -0.73080003
-12.646799 11.740801 -0.73199999
-12.740399 11.7528 -0.73680001
-12.816 11.748 -0.7392
-12.8712 11.7624 -0.7428
-12.946799 11.757601 -0.74519998
-13.0356 11.6892 -0.7464
-13.05 11.627999 -0.74519998
-13.0368 11.542801 -0.74159998
-13.272 11.6784 -0.75599998
-7.1627998 6.2627997 -0.294
-7.1592002 6.2196002 -0.29280001
-7.1747999 6.1944003 -0.29280001
-7.1724005 6.1524 -0.2904
-7.1820002 6.1224003 -0.2904
-7.1904001 6.0912004 -0.28920001
-7.1939998 6.0539999 -0.28799999
-7.1868 6.0288 -0.2868
-7.1820002 5.9867997 -0.28560001
-7.1855998 5.9520001 -0.28440002
-7.1711998 5.9016004 -0.28200001
-7.1808004 5.8716002 -0.28079998
-7.1784 5.8320003 -0.27959999
-7.1724005 5.79 -0.27720001
-7.1664 5.7659998 -0.27720001
-7.1808004 5.7407999 -0.27599999
-7.1760001 5.6999998 -0.2748
-7.2060003 5.6868 -0.27599999
-7.1784 5.6280003 -0.27239999
-7.1808004 5.5944004 -0.2712
-7.1736002 5.5523996 -0.26999998
-7.1999998 5.5535998 -0.2712
-7.2072001 5.5236001 -0.26999998
-19.0632 14.58 -1.1136
-19.086 14.503201 -1.1123999
-19.215601 14.5068 -1.1172
-14.4888 10.8564 -0.77999997
-19.548 14.517599 -1.1328
-19.6824 14.5224 -1.14
-19.808399 14.52 -1.1447999
-19.9296 14.5128 -1.1508
-20.048401 14.503201 -1.1556
-20.2008 14.517599 -1.1628
-20.330399 14.514 -1.1688
-15.2856 10.866 -0.81720001
-20.552401 14.5272 -1.1796
-20.683201 14.5224 -1.1855999
-16.678801 11.6256 -0.90600002
-20.9508 14.5152 -1.1976
-21.1068 14.5248 -1.2047999
-21.211201 14.4996 -1.2096
-16.782 11.4252 -0.9048
-16.881599 11.4156 -0.90840006
-16.964399 11.394 -0.912
-17.000401 11.3412 -0.912
-17.022001 11.2788 -0.91079998
-17.0436 11.215199 -0.90960002
-17.155199 11.2116 -0.9156
-17.2488 11.234401 -0.92040002
-17.181601 11.1144 -0.91319996
-17.254799 11.0844 -0.9156
-17.311199 11.044801 -0.91799998
-17.388 11.0172 -0.92040002
-17.714399 11.146799 -0.93959999
-17.847601 11.1516 -0.94679999
-17.9424 11.172001 -0.95159996
-18.003601 11.132401 -0.95280004
-18.0816 11.1024 -0.95639998
-18.0816 11.024401 -0.954
-18.193201 11.0148 -0.95880002
-18.3288 11.0184 -0.96600002
-18.4188 10.9932 -0.96960002
-18.5208 10.9764 -0.97319996
-18.596399 10.9812 -0.97799999
-18.9072 11.0856 -0.99599999
-18.9648 11.0388 -0.99719995
-19.0884 11.0316 -1.0032001
-19.164 10.9956 -1.0056
-19.297199 10.990801 -1.0116
-19.458 11.0016 -1.02
-19.538399 11.0064 -1.0247999
-19.645201 10.986 -1.0296
-19.8228 11.004 -1.038
-19.8888 10.9596 -1.0404
-19.98 10.9272 -1.044
-20.1084 10.9164 -1.05
-20.203201 10.886399 -1.0536001
-20.336401 10.9176 -1.062
-20.4744 10.908 -1.068
-20.650799 10.9188 -1.0776
-20.8008 10.915199 -1.0848
-20.8908 10.8792 -1.0884
-20.971199 10.8372 -1.0907999
-21.113998 10.8276 -1.098
-21.246 10.854 -1.1052001
-21.434399 10.864799 -1.1148
-21.5832 10.8564 -1.122
-21.720001 10.8396 -1.1292
-21.8484 10.818001 -1.1352
-22.003201 10.8084 -1.1424
-22.3836 10.9092 -1.164
-22.5516 10.9476 -1.1736
-22.5516 10.860001 -1.1712
-22.6236 10.807199 -1.1736
-22.725599 10.7688 -1.1784
-22.872 10.7496 -1.1855999
-23.080799 10.7604 -1.1963999
-23.186401 10.7208 -1.2012
-23.361601 10.758 -1.2107999
-23.541599 10.750799 -1.2204
-23.748001 10.7556 -1.23
-23.903999 10.7364 -1.2384
-24.076799 10.7232 -1.2468001
-24.2724 10.7196 -1.2564001
-24.382801 10.6776 -1.2612
-24.597599 10.725599 -1.2732
-24.798 10.7208 -1.284
-24.9744 10.704 -1.2924
-25.123201 10.674001 -1.2995999
-25.2672 10.6416 -1.3068
-25.505999 10.6488 -1.3188
-25.711201 10.6404 -1.3296001
-25.83 10.6416 -1.3356
-26.0124 10.6212 -1.3452001
-26.237999 10.617599 -1.3572
-26.4828 10.620001 -1.3692
-16.736399 6.6384001 -0.77399999
-16.718401 6.5711999 -0.77279997
-16.799999 6.5412002 -0.77640003
-16.9128 6.5555997 -0.78240001
-17.403601 6.6204004 -0.80880004
-17.5476 6.6132002 -0.81720001
-17.7132 6.6120005 -0.82560003
-17.8536 6.6012001 -0.83280003
-18.004799 6.5928001 -0.84119999
-18.156 6.6167998 -0.84960002
-18.2652 6.5915999 -0.85440004
-18.292801 6.5363998 -0.85440004
-18.3216 6.4823999 -0.8556
-18.728401 6.5604 -0.87839997
-18.903601 6.5555997 -0.88800001
-19.0392 6.5352001 -0.89520001
-16.5744 5.598 -0.74519998
-19.7208 6.3924003 -0.92879999
-16.572001 4.6835999 -0.73080003
-16.579201 4.6296 -0.72959995
-16.568399 4.5696001 -0.72839999
-16.5732 4.5156002 -0.72720003
-16.5828 4.4904003 -0.72839999
-16.687201 4.4628 -0.73320001
-16.851601 4.4495997 -0.74159998
-17.0016 4.4327998 -0.75
-17.137199 4.4112 -0.7572
-17.2896 4.3920002 -0.76560003
-17.4408 4.3727999 -0.77279997
-17.584801 4.3800001 -0.78120005
-17.7372 4.3596001 -0.78960001
-17.9184 4.3439999 -0.7992
-18.086399 4.3248 -0.80759996
-18.246 4.3031998 -0.81599998
-18.434401 4.2863998 -0.82679999
-18.6096 4.2660003 -0.83640003
-18.7932 4.2779999 -0.84599996
-19.0056 4.2635999 -0.85799998
-19.189199 4.2420001 -0.86759996
-19.416 4.2276001 -0.87959999
-19.513199 4.1855998 -0.88440001
-19.7868 4.1796002 -0.89999998
-20.751598 4.3164001 -0.95520002
-20.894402 4.2431998 -0.96239996
-20.895599 4.1760001 -0.9612
-23.649601 4.6524 -1.1196001
-23.691601 4.5840001 -1.1208
-20.886002 3.8676 -0.9576
-24.886801 4.4531999 -1.1855999
-43.698002 7.2768002 -2.2607999
-43.792801 7.2216001 -2.2656
-43.850399 7.0896001 -2.2679999
-43.959599 6.9659996 -2.2728
-44.9688 6.9815998 -2.3292
-46.0896 7.0092001 -2.3927999
-48.560398 7.0739999 -2.5307999
-49.416 7.1196003 -2.5788
-50.569199 7.1243997 -2.6436
-51.6576 7.1135998 -2.7047999
-53.243999 7.1627998 -2.7936001
-54.6684 7.1795998 -2.8740001
-55.7724 7.1471996 -2.9352002
-56.121601 7.0139999 -2.9543998
-56.320797 6.9491997 -2.9651999
-56.5896 6.8016005 -2.9796
-56.689201 6.6324 -2.9832001
-56.898003 6.4763999 -2.994
-57.139202 6.3216 -3.0072
-57.493198 6.1788001 -3.0251999
-57.698402 6.0179996 -3.036
-57.986397 5.9555998 -3.0527999
-58.216801 5.7947998 -3.0647998
-58.475998 5.6352 -3.0780001
-58.6716 5.4684 -3.0876
-58.338001 5.2523999 -3.0683999
-63.738003 5.4384003 -3.3732002
-62.380802 4.9271998 -3.2939999
-61.953598 4.7951999 -3.27
-61.562397 4.5707998 -3.2472
-61.3908 4.3631997 -3.2364001
-59.984398 3.8843999 -3.1547999
-59.821201 3.6852002 -3.1452
-59.347202 3.4680002 -3.1176
-59.197201 3.3660002 -3.1092
-58.891201 3.1631999 -3.0911999
-58.7556 2.9712 -3.0827999
-58.402798 2.7684 -3.0624001
-58.214401 2.5764 -3.0516
-57.926399 2.3808 -3.0348001
-57.5952 2.1863999 -3.0156
-57.589203 2.0952001 -3.0144
-56.694 1.5276 -2.9628
-56.5812 1.3464 -2.9568
-56.498402 1.1664 -2.9520001
-56.504402 0.99000001 -2.9520001
-56.575199 0.90239996 -2.9556
-56.419197 0.1908 -2.9459999
-56.3172 0.0132 -2.9400001
-56.351997 -0.1644 -2.9424
-56.270397 -0.252 -2.9375999
-55.652397 -0.77399999 -2.9027998
-56.383202 -0.9612 -2.9447999
-56.43 -1.14 -2.9472001
-56.528397 -1.3188 -2.9531999
-56.629204 -1.41 -2.9592001
-57.2076 -1.6044 -2.9916
-57.143997 -1.7820001 -2.9891999
-56.487602 -1.9392 -2.9520001
-55.996803 -2.0987999 -2.9244001
-53.749199 -2.1852 -2.7983999
-53.667599 -2.3508 -2.7936001
-53.560799 -2.4312 -2.7876
-53.383202 -2.5907998 -2.7780001
-53.245197 -2.7516 -2.7708001
-53.056801 -2.9099998 -2.7612002
-52.866001 -3.066 -2.7504001
-52.635597 -3.2184 -2.7384
-52.429203 -3.3708 -2.7264001
-52.232399 -3.4416001 -2.7156
-52.0644 -3.5939999 -2.7072001
-51.902397 -3.7475998 -2.6988001
-51.794399 -3.9036 -2.6928
-51.66 -4.0560002 -2.6868
-51.571201 -4.2119999 -2.6819999
-51.450001 -4.3656001 -2.6760001
-51.325199 -4.4363999 -2.6687999
-51.211197 -4.5888 -2.664
-51.119999 -4.7423997 -2.6592002
-51.007202 -4.8936 -2.6531999
-50.891998 -5.0436001 -2.6484001
-50.787601 -5.1947999 -2.6423998
-50.656799 -5.3424001 -2.6364
-50.6436 -5.4216003 -2.6364
-50.625599 -5.5799999 -2.6364
-50.512802 -5.7288003 -2.6303999
-50.4492 -5.8824 -2.628
-50.3256 -6.0275998 -2.622
-50.280003 -6.1823997 -2.6208
-50.1348 -6.3252001 -2.6136
-49.948799 -6.3815999 -2.6040001
-50.049599 -6.5544 -2.6099999
-49.869598 -6.6899996 -2.6015999
-15.4596 -2.1456001 -0.63959998
-15.4032 -2.1863999 -0.63599998
-17.2008 -2.5488 -0.7392
-17.3172 -2.5932 -0.7464
-16.273199 -2.6484001 -0.68879998
-16.281599 -2.7024002 -0.69
-16.2756 -2.7540002 -0.69
-16.258801 -2.7767999 -0.68879998
-16.233601 -2.826 -0.68879998
-16.2132 -2.8740001 -0.68760002
-15.8844 -3.3599999 -0.67439997
-15.8772 -3.3852 -0.67439997
-15.886801 -3.4391999 -0.67560005
-15.8712 -3.4884 -0.67560005
-15.8628 -3.5387998 -0.67560005
-15.813601 -3.5796001 -0.67320001
-15.8004 -3.6287999 -0.67320001
-14.8656 -3.7368002 -0.62279999
-14.8908 -3.7932 -0.62520003
-21.0348 -5.5211997 -0.98640001
-21.044401 -5.5944004 -0.98760003
-21.147598 -5.6928 -0.99479997
-20.962799 -5.7144003 -0.98519999
-20.9592 -5.7840004 -0.98640001
-23.114399 -6.4931998 -1.1136
-28.5096 -8.4851999 -1.4388
-28.512001 -8.5836 -1.4400001
-28.7628 -8.7083998 -1.4556
-28.744801 -8.802 -1.4568
-29.062799 -8.9988003 -1.4771999
-29.047199 -9.0936003 -1.4771999
-28.660801 -9.0719995 -1.4568
-28.7208 -9.1907997 -1.4616001
-28.890001 -9.3444004 -1.4736
-29.351999 -9.5447998 -1.5012001
-37.854 -12.96 -2.0184
-37.7784 -13.0668 -2.0172
-37.719601 -13.113601 -2.0148001
-37.661999 -13.2264 -2.0135999
-37.5504 -13.320001 -2.0088
-21.0348 -7.5503998 -1.02
-21.013199 -7.6176 -1.02
-20.989199 -7.6823997 -1.02
-20.953201 -7.7448001 -1.02
-20.936401 -7.776 -1.0188
-20.938799 -7.8516002 -1.0212001
-21.307201 -8.0651999 -1.0452
-20.237999 -7.7351999 -0.98160005
-20.114399 -7.7603998 -0.9756
-19.9452 -7.7676001 -0.96719998
-19.768801 -7.7711997 -0.9576
-19.621201 -7.7483997 -0.94920003
-19.455599 -7.7543998 -0.94079995
-19.3008 -7.7627997 -0.93239999
-19.1532 -7.7748003 -0.92520005
-19.0044 -7.7832003 -0.91799998
-18.8472 -7.7892003 -0.90960002
-18.7008 -7.7976003 -0.90239996
-18.562799 -7.7736001 -0.89399999
-18.425999 -7.7844 -0.88800001
-18.284401 -7.7927999 -0.88080001
-18.134401 -7.7964001 -0.87239999
-18.183599 -7.8864002 -0.87720001
-18.170401 -7.9476004 -0.87839997
-18.129601 -7.9980001 -0.87720001
-18.178801 -8.0543995 -0.88080001
-18.185999 -8.1252003 -0.88319999
-18.204 -8.2019997 -0.88559997
-18.156 -8.25 -0.88440001
-17.681999 -8.1012001 -0.8556
-17.3076 -7.9967999 -0.83399999
-17.656799 -8.2248001 -0.85799998
-17.625599 -8.2439995 -0.85679996
-17.418001 -8.2139997 -0.8448
-17.320801 -8.2343998 -0.84119999
-16.8444 -8.0748005 -0.81239998
-16.7328 -8.0855999 -0.80759996
-16.653601 -8.1120005 -0.80400002
-16.5804 -8.1407995 -0.80040002
-16.518 -8.1431999 -0.79800004
-16.454399 -8.1756001 -0.7956
-16.3848 -8.2055998 -0.79320002
-16.1688 -8.1612005 -0.78120005
-16.032 -8.1563997 -0.77399999
-15.9 -8.1515999 -0.76679999
-15.7248 -8.1252003 -0.7572
-15.505199 -8.0436001 -0.74400002
-14.166 -7.4087996 -0.66000003
-15.932401 -8.3903999 -0.77520001
-15.759601 -8.3639994 -0.76560003
-15.6924 -8.3915997 -0.76319999
-15.571199 -8.3903999 -0.7572
-15.360001 -8.3387995 -0.74519998
-15.2328 -8.3016005 -0.73680001
-14.4648 -7.9428 -0.69
-14.4228 -7.9788003 -0.68879998
-14.395201 -8.0232 -0.68879998
-14.3244 -8.0424004 -0.68519998
-14.0028 -7.9211998 -0.66600001
-14.2332 -8.1107998 -0.68279999
-14.2164 -8.1300001 -0.68279999
-14.186399 -8.1719999 -0.68279999
-14.1504 -8.2103996 -0.68160003
-14.1432 -8.2667999 -0.68279999
-14.086801 -8.2919998 -0.68039995
-14.103601 -8.3627996 -0.68400002
-13.982401 -8.3495998 -0.67680001
-13.9836 -8.3808002 -0.67799997
-13.9476 -8.4180002 -0.67799997
-14.16 -8.6076002 -0.6936
-13.8288 -8.4659996 -0.67320001
-13.812 -8.5152006 -0.67439997
-13.7388 -8.5296001 -0.67080003
-13.6428 -8.5296001 -0.66600001
-12.663601 -7.9488001 -0.60239995
-12.715199 -8.0363998 -0.60719997
-13.4076 -8.5307999 -0.6552
-13.314 -8.5296001 -0.65039998
-13.246799 -8.5464001 -0.648
-13.148399 -8.5416002 -0.64320004
-13.0716 -8.5511999 -0.63959998
-12.6708 -8.3747997 -0.61559999
-12.6144 -8.3951998 -0.61319995
-12.566401 -8.4204006 -0.61199999
-12.4464 -8.3964005 -0.60600001
-12.3924 -8.4167995 -0.60360003
-12.3204 -8.4251995 -0.60000002
-12.2808 -8.4264002 -0.5988
-12.2364 -8.4527998 -0.59759998
-12.1944 -8.4804001 -0.59640002
-11.998799 -8.4012003 -0.5844
-11.9532 -8.4251995 -0.58319998
-11.896799 -8.4407997 -0.5808
-11.8836 -8.4888 -0.58200002
-11.8392 -8.4851999 -0.57960004
-11.7636 -8.4876003 -0.5772
-11.6376 -8.4527998 -0.56999999
-11.5548 -8.448 -0.56639999
-11.492399 -8.4575996 -0.56279999
-11.3976 -8.4432001 -0.55800003
-11.3256 -8.4456005 -0.55559999
-11.2908 -8.4468002 -0.55440003
-11.2368 -8.4624004 -0.55199999
-11.172001 -8.4684 -0.54960001
-11.1204 -8.4851999 -0.54720002
-11.0196 -8.4636002 -0.5424
-10.9512 -8.4659996 -0.5388
-10.8912 -8.4731998 -0.53640002
-10.8564 -8.4743996 -0.5352
-10.7664 -8.4587994 -0.53039998
-10.3584 -8.1924 -0.50279999
-10.312799 -8.2091999 -0.50160003
-10.299601 -8.2511997 -0.50279999
-10.518001 -8.4804001 -0.52079999
-10.4616 -8.4899998 -0.51840001
-10.4016 -8.4684 -0.51480001
-10.345201 -8.4768 -0.51239997
-10.302 -8.4947996 -0.51120001
-10.240801 -8.4983997 -0.50879997
-10.194 -8.5139999 -0.50760001
-10.1412 -8.5248003 -0.50520003
-10.084801 -8.5320005 -0.50400001
-10.0608 -8.5380001 -0.50279999
-10.0116 -8.5511999 -0.50040001
-9.9660006 -8.5668001 -0.49920002
-9.9180002 -8.5788002 -0.498
-9.8688002 -8.592 -0.49680001
-9.7992001 -8.5847998 -0.4932
-9.2315998 -8.1420002 -0.4524
-9.2399998 -8.1743994 -0.45359999
-9.2592001 -8.2439995 -0.45720002
-8.9219999 -7.9956002 -0.43439999
-8.8895998 -8.0172005 -0.4332
-8.8535995 -8.0352001 -0.43200001
-8.802 -8.0388002 -0.43079999
-8.7552004 -8.0472002 -0.42839998
-8.7035999 -8.0256004 -0.426
-8.6555996 -8.0316 -0.42359999
-8.6028004 -8.0327997 -0.4224
-8.5548 -8.0375996 -0.41999999
-8.4972 -8.0352001 -0.41759998
-8.4552002 -8.0459995 -0.41640002
-8.3951998 -8.0388002 -0.414
-8.3652 -8.0352001 -0.41280001
-8.3051996 -8.0279999 -0.40919998
-8.2631998 -8.0375996 -0.40799999
-8.2103996 -8.0375996 -0.40560001
-8.1708002 -8.0496006 -0.40560001
-8.1168003 -8.0459995 -0.4032
-8.0808001 -8.0615997 -0.40200001
-8.0327997 -8.0388002 -0.3996
-7.9967999 -8.0543995 -0.39839998
-7.9404001 -8.0472002 -0.39600003
-7.8912001 -8.0483999 -0.39360002
-7.8528004 -8.0592003 -0.3924
-7.7964001 -8.0531998 -0.38999999
-7.7532001 -8.0580006 -0.3888
-7.7184 -8.0483999 -0.3876
-7.6704001 -8.0483999 -0.38520002
-7.6236 -8.0496006 -0.38280001
-7.5852003 -8.0592003 -0.38280001
-7.5335999 -8.0556002 -0.3804
-7.4916 -8.0615997 -0.37920001
-7.4471998 -8.0640001 -0.3768
-7.4208002 -8.0615997 -0.37559998
-7.3764 -8.0640001 -0.37440002
-7.3367996 -8.0711994 -0.3732
-7.2852001 -8.0651999 -0.37079999
-7.2419996 -8.0688 -0.3696
-7.2060003 -8.0783997 -0.36840001
-7.1603999 -8.0795994 -0.36719999
-7.1340003 -8.0748005 -0.366
-7.0907998 -8.0771999 -0.36479998
-7.0488 -8.0795994 -0.3624
-6.9972 -8.0735998 -0.3612
-6.9491997 -8.0676003 -0.35879999
-6.9071999 -8.0711994 -0.3576
-6.8615999 -8.0699997 -0.35519999
-6.8388 -8.0676003 -0.35399997
-6.7895999 -8.0615997 -0.35280001
-6.7644 -8.0832005 -0.35280001
-6.744 -8.1096001 -0.35280001
-6.7188001 -8.1311998 -0.35280001
-6.7007999 -8.1612005 -0.35399997
-6.6960001 -8.2080002 -0.35519999
-6.7007999 -8.2404003 -0.3576
-6.7020001 -8.2955999 -0.36000001
-6.7020001 -8.3484001 -0.3624
-6.6924 -8.3892002 -0.36360002
-6.6563997 -8.3999996 -0.3624
-6.6096001 -8.3940001 -0.3612
-6.5688 -8.3964005 -0.35879999
-6.5508003 -8.3999996 -0.35879999
-6.5028 -8.3928003 -0.35639998
-6.4607997 -8.3940001 -0.35519999
-6.4271998 -8.4048004 -0.35519999
-6.3887997 -8.4096003 -0.35399997
-6.3528004 -8.4167995 -0.35280001
-6.3011999 -8.4035997 -0.3504
-6.2724004 -8.3928003 -0.34920001
-6.2340002 -8.3951998 -0.34799999
-6.2136002 -8.4239998 -0.34799999
-6.1620002 -8.4096003 -0.34559998
-6.1248002 -8.4132004 -0.34439999
-6.0852003 -8.4144001 -0.34320003
-6.0444002 -8.4144001 -0.34200001
-6.0156002 -8.4024 -0.34080002
-5.9843998 -8.4132004 -0.34080002
-5.9424 -8.4108 -0.33840001
-5.9028001 -8.4120007 -0.33719999
-5.8727999 -8.4239998 -0.33719999
-5.8176003 -8.4012003 -0.3348
-5.7924004 -8.4216003 -0.3348
-5.7684002 -8.4155998 -0.33359998
-5.7216001 -8.4035997 -0.3312
-5.6831999 -8.4035997 -0.33000001
-5.6471996 -8.4071999 -0.32879999
-5.6075997 -8.4048004 -0.3276
-5.5728002 -8.4108 -0.3276
-5.5500002 -8.4348001 -0.3276
-5.5032001 -8.3915997 -0.324
-5.4696002 -8.3987999 -0.32279998
-5.4419999 -8.4132004 -0.32279998
-5.3987999 -8.4048004 -0.32160002
-5.3759999 -8.4275999 -0.32160002
-5.3231997 -8.4024 -0.31920001
-5.2104001 -8.2824001 -0.3096
-5.1672001 -8.2427998 -0.30599999
-5.1408 -8.2584 -0.30599999
-5.0939999 -8.2416 -0.3048
-5.0555997 -8.2379999 -0.30359998
-5.0195999 -8.2368002 -0.30239999
-5.0003996 -8.2631998 -0.30239999
-4.9560003 -8.2476006 -0.30119997
-4.9404001 -8.2511997 -0.30000001
-4.902 -8.2463999 -0.29879999
-4.8635998 -8.2416 -0.2976
-4.8600001 -8.2944002 -0.30000001
-4.8060002 -8.2620001 -0.29639998
-4.776 -8.2704 -0.29639998
-4.7736001 -8.4155998 -0.30359998
-4.7400002 -8.4180002 -0.30239999
-4.6991997 -8.4083996 -0.30119997
-4.6595998 -8.3999996 -0.30000001
-4.6068001 -8.3663998 -0.29639998
-4.5707998 -8.3639994 -0.29520002
-4.5576 -8.3711996 -0.29520002
-4.5479999 -8.4144001 -0.2976
-4.5120001 -8.4120007 -0.29639998
-4.4748001 -8.4071999 -0.29520002
-4.4484 -8.4216003 -0.29520002
-4.4099998 -8.4120007 -0.294
-4.3800001 -8.4191999 -0.29280001
-4.3583999 -8.4096003 -0.29159999
-4.3224001 -8.4060001 -0.29159999
-4.2936001 -8.4132004 -0.2904
-4.2683997 -8.4312 -0.2904
-4.2192001 -8.3987999 -0.28799999
-4.2024002 -8.4312 -0.28920001
-4.1603999 -8.4132004 -0.2868
-4.1352 -8.3951998 -0.28560001
-4.1184001 -8.4275999 -0.2868
-4.0716 -8.3976002 -0.28440002
-4.0464001 -8.4144001 -0.28440002
-4.0187998 -8.4228001 -0.28440002
-3.9791999 -8.4096003 -0.2832
-3.9504001 -8.4180002 -0.28200001
-3.9300001 -8.4083996 -0.28079998
-3.9024 -8.4167995 -0.28079998
-3.8640001 -8.4035997 -0.27959999
-3.8316002 -8.4024 -0.2784
-3.8040001 -8.4120007 -0.2784
-3.7788 -8.4275999 -0.2784
-3.7391999 -8.4096003 -0.27720001
-3.7212 -8.4048004 -0.27599999
-3.6912 -8.4096003 -0.27599999
-3.6599998 -8.4096003 -0.2748
-3.6371999 -8.4275999 -0.27599999
-3.6011999 -8.4180002 -0.2748
-3.5699999 -8.4204006 -0.27360001
-3.5339999 -8.4071999 -0.27239999
-3.5208001 -8.4120007 -0.27239999
-3.4860001 -8.4035997 -0.2712
-3.4596 -8.4167995 -0.2712
-3.4296 -8.4180002 -0.26999998
-3.3947999 -8.4071999 -0.26880002
-3.3732002 -8.4288006 -0.26999998
-3.3552001 -8.4228001 -0.26880002
-3.3216 -8.4155998 -0.2676
-3.2927999 -8.4216003 -0.2676
-3.2651999 -8.4275999 -0.2676
-3.2291999 -8.4155998 -0.26640001
-3.2004001 -8.4191999 -0.26640001
-3.174 -8.4264002 -0.26519999
-3.1572001 -8.4228001 -0.26519999
-3.1224 -8.4096003 -0.264
-3.0936 -8.4155998 -0.264
-3.0636001 -8.4132004 -0.26280001
-3.0420001 -8.4372005 -0.264
-3.0036001 -8.4144001 -0.26159999
-1.6812 -4.7975998 -0.044399999
-1.6692001 -4.7867999 -0.043199997
-1.6536 -4.7927999 -0.043199997
-1.6392001 -4.7975998 -0.043199997
-1.6296 -4.8204002 -0.044399999
-2.8151999 -8.4264002 -0.25920001
-2.7828 -8.4191999 -0.25800002
-2.7696002 -8.4216003 -0.25800002
-2.7395999 -8.4216003 -0.2568
-2.7096 -8.4155998 -0.2568
-2.6832001 -8.4264002 -0.2568
-2.6603999 -8.4468002 -0.2568
-2.622 -8.4155998 -0.25439999
-2.5956001 -8.4264002 -0.25560001
-2.5776 -8.4144001 -0.25439999
-2.562 -8.4575996 -0.25560001
-2.5223999 -8.4216003 -0.25319999
-2.4228001 -8.1864004 -0.2388
-2.3831999 -8.1479998 -0.23639999
-2.3508 -8.1323996 -0.23519999
-2.3208001 -8.1227999 -0.234
-2.3111999 -8.1384001 -0.23519999
-2.2752001 -8.1084003 -0.23280001
-2.256 -8.1395998 -0.234
-2.2272 -8.1323996 -0.23280001
-2.1984 -8.1300001 -0.23280001
-2.1731999 -8.1395998 -0.23280001
-2.1359999 -8.1000004 -0.2304
-2.0964 -8.0028 -0.22440001
-2.0651999 -7.9847999 -0.22320001
-2.0448 -8.0100002 -0.22440001
-2.0304 -8.1659994 -0.23280001
-2.0064001 -8.1792002 -0.23280001
-1.9704 -8.1444006 -0.2304
-1.962 -8.1636 -0.2316
-1.932 -8.1504002 -0.2304
-1.9068 -8.1612005 -0.2304
-1.8744 -8.1395998 -0.22920001
-1.8456 -8.1288004 -0.228
-1.8216 -8.1420002 -0.228
-1.7916 -8.1288004 -0.22679999
-1.776 -8.1191998 -0.22679999
-1.7472 -8.1084003 -0.22559999
-1.7219999 -8.1143999 -0.22559999
-1.6956 -8.1168003 -0.22559999
-1.6668 -8.1084003 -0.22440001
-1.6487999 -8.1468 -0.22679999
-1.6224 -8.1515999 -0.22679999
-1.6056001 -8.1311998 -0.22559999
-1.5780001 -8.1288004 -0.22440001
-1.5504 -8.1191998 -0.22440001
-1.5312001 -8.1599998 -0.22559999
-1.4976001 -8.1216002 -0.22320001
-1.4796001 -8.1647997 -0.22559999
-1.4448 -8.1216002 -0.22320001
-1.4375999 -8.1552 -0.22440001
-1.4075999 -8.1360006 -0.22320001
-1.3859999 -8.1636 -0.22440001
-1.3596001 -8.1588001 -0.22440001
-1.3284 -8.1323996 -0.222
-1.3068 -8.1575994 -0.22320001
